-5.32112 70.5778 169.793
-5.32088 70.7447 169.789
-4.79492 70.4353 168.661
-5.28176 70.6403 168.491
-5.29501 70.9773 168.911
-5.29478 71.1433 168.907
-4.75963 70.6631 167.374
-5.28083 71.3028 168.476
-4.75919 70.9921 167.366
-5.28037 71.634 168.468
-5.28013 71.7996 168.464
-5.45522 72.1265 168.833
-4.58605 71.4912 166.986
-4.59746 71.8271 167.398
-4.76995 72.1519 167.761
-4.78187 72.4909 168.178
-5.13027 72.982 168.917
-5.11696 72.9715 168.489
-5.1298 73.314 168.909
-5.31862 73.824 169.707
-5.31838 73.9908 169.703
-5.31814 74.1575 169.699
-4.6189 73.6602 168.202
-4.60694 73.6482 167.778
-5.09168 73.6854 167.613
-5.09145 73.8502 167.609
-4.74547 73.6869 166.874
-4.91774 74.0149 167.235
-5.09075 74.3443 167.598
-5.26451 74.6752 167.962
-4.91681 74.6723 167.22
-4.91658 74.8366 167.217
-4.57218 74.6693 166.485
-4.58354 75.0117 166.895
-4.41192 75.0094 166.528
-4.42288 75.3526 166.938
-4.42132 76.5004 166.912
-4.43234 76.8478 167.324
-4.77739 77.356 168.056
-4.91576 77.0475 167.155
-4.91552 77.2117 167.152
-4.92612 78.7137 167.539
-4.92588 78.8782 167.535
-4.92564 79.0428 167.532
-4.93797 79.3978 167.947
-4.24926 78.8588 166.48
-4.76376 79.8792 167.564
-4.75141 79.8522 167.143
-4.23738 79.4868 166.051
-4.37676 79.3335 165.167
-4.37653 79.4958 165.164
-4.71588 80.6608 165.862
-4.54503 80.646 165.5
-4.37462 82.6509 165.082
-4.54418 82.995 165.436
-4.54394 83.1575 165.432
-8.77809 9.9691 183.532
-7.7726 10.2722 180.852
-7.2879 11.6758 177.585
-7.49678 12.2623 178.456
-7.11724 12.3816 177.622
-7.3063 12.5863 178.031
-7.09816 12.7006 177.146
-7.05998 13.2441 176.198
-6.66985 13.3238 174.929
-6.85502 13.5276 175.325
-6.85486 13.701 175.321
-7.04086 13.9061 175.719
-6.66922 14.016 174.911
-6.66906 14.189 174.907
-6.51828 14.4016 175.414
-6.70362 14.6084 175.812
-6.8898 14.8161 176.213
-6.88963 14.9904 176.208
-6.70313 15.1299 175.799
-6.51749 15.2688 175.391
-6.88912 15.5131 176.195
-6.88895 15.6874 176.19
-6.70247 15.8253 175.781
-6.88861 16.0358 176.181
-6.88844 16.21 176.177
-6.81613 16.6488 174.329
-6.63178 16.783 173.928
-6.63162 16.955 173.924
-6.63146 17.1271 173.92
-6.44798 17.2599 173.521
-6.63114 17.4711 173.911
-6.81513 17.6832 174.303
-6.83269 17.9004 174.752
-6.85034 18.1187 175.203
-6.68237 18.296 175.254
-6.90396 18.6054 176.574
-7.10974 19.2221 177.436
-6.73415 19.3078 176.612
-7.12817 19.6227 177.896
-6.92106 19.7023 177.012
-7.10901 19.9234 177.418
-6.73346 20.0058 176.594
-6.90237 20.1759 176.534
-6.90219 20.3503 176.529
-6.64533 20.5284 174.281
-6.64516 20.7006 174.276
-6.81184 20.8683 174.217
-6.81167 21.0406 174.212
-6.62745 21.1645 173.812
-6.64448 21.3897 174.259
-6.64431 21.5619 174.254
-6.82869 21.7839 174.648
-6.66125 21.9613 174.699
-6.67843 22.1895 175.149
-6.6957 22.4189 175.602
-6.69553 22.5924 175.598
-6.32571 22.6614 174.791
-6.32555 22.8341 174.787
-6.49285 23.0019 174.727
-6.49267 23.1745 174.723
-6.4925 23.3471 174.719
-6.49233 23.5198 174.714
-6.49215 23.6924 174.71
-6.42477 24.0525 172.891
-6.24282 24.1685 172.497
-6.06171 24.2839 172.105
-6.06155 24.454 172.101
-6.06139 24.624 172.096
-6.42392 24.9067 172.87
-6.42375 25.0775 172.865
-6.09214 25.2588 172.97
-6.1077 25.4929 173.412
-6.28997 25.7229 173.802
-6.10737 25.8355 173.403
-6.09148 25.9422 172.953
-6.09131 26.1131 172.948
-5.91006 26.2242 172.554
-5.9099 26.3947 172.55
-6.09081 26.6255 172.936
-6.09064 26.7963 172.931
-5.84891 27.2297 170.762
-5.6705 27.337 170.377
-5.65596 27.4382 169.942
-5.83357 27.668 170.316
-5.83341 27.8363 170.312
-5.66988 28.0102 170.361
-5.50624 28.1842 170.41
-5.52011 28.422 170.839
-5.51995 28.5907 170.835
-5.5198 28.7594 170.831
-5.51964 28.9281 170.827
-5.69788 29.1623 171.205
-5.51933 29.2654 170.818
-5.34159 29.368 170.434
-5.34144 29.5363 170.43
-5.1645 29.638 170.047
-5.44908 30.1577 168.635
-5.44893 30.3242 168.631
-5.27362 30.4232 168.257
-4.92548 30.4544 167.516
-5.44846 30.8239 168.619
-5.46207 31.0657 169.04
-5.12435 31.1694 168.716
-5.31291 31.4822 169.512
-5.31276 31.6495 169.508
-5.13684 31.7459 169.129
-4.9617 31.8419 168.752
-5.31229 32.1515 169.495
-5.31213 32.3189 169.491
-5.1233 32.3353 168.688
-5.12314 32.5018 168.684
-5.12299 32.6684 168.68
-4.89892 33.1858 166.608
-4.89878 33.3504 166.604
-4.72678 33.4414 166.238
-4.72664 33.6056 166.234
-5.08363 34 167.372
-4.92272 34.1719 167.421
-4.93492 34.4198 167.836
-4.76157 34.5091 167.464
-4.77337 34.7579 167.879
-4.77323 34.9235 167.875
-4.77308 35.0892 167.871
-4.76099 35.1702 167.448
-4.94642 35.4992 168.232
-4.77263 35.5862 167.859
-4.93371 35.7449 167.804
-4.76039 35.8312 167.433
-5.13265 69.7504 169.002
-5.29445 69.9041 168.946
-5.44394 70.1308 168.451
-5.4437 70.2964 168.447
-5.44347 70.462 168.443
-5.6189 70.7859 168.811
-5.61866 70.9519 168.807
-5.61842 71.1178 168.803
-5.61817 71.2838 168.8
-5.61793 71.4498 168.796
-5.61769 71.6157 168.792
-5.63181 71.9558 169.214
-5.63156 72.1221 169.21
-5.45522 72.1265 168.833
-5.6455 72.6309 169.63
-5.64526 72.7977 169.626
-5.64501 72.9644 169.622
-5.46821 72.9668 169.243
-5.46796 73.1331 169.239
-5.11696 72.9715 168.489
-5.29171 73.3011 168.858
-4.94205 73.3042 168.108
-5.07948 73.0158 167.207
-5.25281 73.3429 167.569
-5.06618 73.1691 166.784
-5.25234 73.6724 167.562
-5.26402 75.0053 167.955
-5.27721 75.3517 168.372
-5.27696 75.5172 168.369
-5.24993 75.3192 167.524
-4.91565 75.4938 167.202
-4.92791 75.8398 167.616
-4.75478 75.8356 167.245
-5.08812 76.1558 167.557
-5.23759 76.0352 167.076
-5.23735 76.1994 167.072
-5.23711 76.3636 167.068
-5.23686 76.5278 167.065
-5.23662 76.692 167.061
-5.06339 76.6861 166.693
-5.23613 77.0204 167.053
-5.26084 78.7105 167.86
-5.26059 78.8754 167.856
-5.26033 79.0403 167.852
-4.91289 79.0177 167.111
-4.91265 79.1819 167.108
-4.74008 79.1703 166.74
-4.53638 78.5086 165.136
-4.90086 80.2135 166.654
-8.92865 10.1212 182.969
-8.14026 10.1141 181.228
-8.11822 10.2667 180.737
-8.11802 10.4455 180.732
-8.11724 11.1607 180.713
-8.11705 11.3395 180.708
-7.90171 11.4618 179.796
-7.88047 11.6097 179.312
-7.88028 11.7871 179.307
-7.88009 11.9645 179.302
-7.49696 12.0858 178.461
-7.30666 12.2341 178.041
-7.09851 12.3502 177.155
-7.45685 12.5511 177.505
-7.4764 12.7592 177.97
-7.24756 13.2745 176.605
-6.83734 13.3206 174.873
-7.02283 13.5243 175.27
-7.20915 13.7289 175.668
-6.83686 13.8396 174.86
-7.02232 14.0445 175.256
-7.02216 14.2179 175.252
-6.87212 14.4311 175.761
-7.05863 14.6384 176.162
-6.68598 14.745 175.349
-6.87162 14.9526 175.748
-7.05811 15.1611 176.148
-6.68549 15.2653 175.336
-6.51733 15.4422 175.387
-6.68516 15.6121 175.327
-6.50006 15.7495 174.922
-6.68483 15.9588 175.318
-6.87044 16.1691 175.716
-6.61481 16.5696 173.483
-6.79831 16.7792 173.873
-6.61449 16.9128 173.475
-6.61433 17.0844 173.47
-6.61417 17.256 173.466
-6.98212 17.5068 174.251
-6.98195 17.6792 174.247
-6.99994 17.8963 174.696
-7.01803 18.1146 175.147
-6.49751 18.2542 174.853
-6.69966 18.5158 175.707
-6.69949 18.6895 175.703
-7.26055 18.9941 176.918
-7.27952 19.2178 177.38
-7.27933 19.3931 177.375
-7.10938 19.5728 177.427
-6.92106 19.7023 177.012
-6.92089 19.8773 177.007
-7.10882 20.0988 177.413
-7.08994 20.2226 176.942
-6.90219 20.3503 176.529
-6.99709 20.5708 174.623
-6.81201 20.6961 174.221
-6.62779 20.8208 173.821
-6.44441 20.945 173.423
-6.44424 21.1164 173.418
-6.9962 21.4339 174.601
-6.81115 21.5572 174.199
-6.46043 21.6846 173.854
-6.47703 21.9111 174.301
-6.86402 22.2406 175.551
-7.05027 22.4658 175.951
-6.86366 22.5876 175.543
-6.49319 22.6566 174.736
-6.67773 22.8817 175.132
-6.67756 23.0548 175.127
-6.67738 23.2278 175.123
-6.6772 23.4008 175.119
-6.49233 23.5198 174.714
-6.49215 23.6924 174.71
-6.60737 24.1072 173.283
-6.40808 24.1633 172.443
-6.22665 24.2788 172.051
-6.22649 24.4488 172.046
-6.58965 24.7306 172.819
-6.40741 24.845 172.426
-6.242 25.0207 172.476
-6.25791 25.2536 172.916
-6.09197 25.4297 172.966
-6.45649 25.7175 173.747
-6.45631 25.8891 173.743
-6.2734 26.0014 173.345
-6.27322 26.1726 173.34
-6.45579 26.404 173.73
-6.45561 26.5756 173.725
-6.25655 26.62 172.881
-6.09064 26.7963 172.931
-6.01278 27.0555 170.712
-5.83405 27.1632 170.328
-5.83389 27.3314 170.324
-6.01229 27.5615 170.7
-5.83357 27.668 170.316
-5.83341 27.8363 170.312
-5.84811 28.0732 170.741
-5.68416 28.2476 170.79
-5.87772 28.5504 171.606
-5.87756 28.7199 171.601
-5.5198 28.7594 170.831
-5.68353 28.9222 170.773
-5.68337 29.0909 170.769
-5.68321 29.2595 170.765
-5.68304 29.4282 170.761
-5.68288 29.5968 170.757
-5.50484 29.6986 170.372
-5.43538 30.0848 168.212
-5.26054 30.1841 167.839
-5.6247 30.5587 168.999
-5.44862 30.6574 168.623
-5.27332 30.7556 168.248
-5.62422 31.0595 168.987
-5.63829 31.3023 169.41
-5.31291 31.4822 169.512
-5.31276 31.6495 169.508
-5.48914 31.8881 169.88
-5.12375 31.8357 168.7
-5.47494 32.1452 169.443
-5.65161 32.3848 169.815
-5.47462 32.4798 169.435
-5.47445 32.6471 169.43
-5.47429 32.8144 169.426
-5.0589 33.1793 166.556
-5.24475 33.4976 167.332
-5.24459 33.6628 167.328
-5.24444 33.828 167.324
-5.25744 34.0752 167.739
-5.09623 34.2475 167.787
-4.93492 34.4198 167.836
-5.10874 34.6623 168.2
-4.93462 34.7512 167.828
-4.93447 34.9168 167.824
-5.10827 35.1603 168.188
-4.76099 35.1702 167.448
-5.10796 35.4923 168.18
-4.93386 35.5793 167.808
-5.09483 35.738 167.752
-5.98748 70.1976 170.025
-5.44347 70.462 168.443
-5.6189 70.7859 168.811
-5.61866 70.9519 168.807
-5.60388 71.1117 168.376
-5.61793 71.4498 168.796
-5.61769 71.6157 168.792
-5.63181 71.9558 169.214
-5.63156 72.1221 169.21
-5.63132 72.2885 169.206
-5.6455 72.6309 169.63
-5.64526 72.7977 169.626
-5.64501 72.9644 169.622
-5.64476 73.1311 169.618
-5.09123 72.4562 167.652
-5.091 72.621 167.648
-5.58897 72.8329 167.9
-5.76414 73.161 168.266
-5.41385 73.0004 167.525
-5.58824 73.3282 167.889
-5.41337 73.3298 167.518
-5.41313 73.4945 167.514
-5.39919 73.4827 167.093
-5.41265 73.8239 167.506
-5.4124 73.9886 167.503
-5.41216 74.1532 167.499
-5.42568 74.4969 167.915
-5.42544 74.6619 167.911
-5.43902 75.0075 168.328
-5.43877 75.1729 168.324
-5.43853 75.3384 168.321
-5.43828 75.5038 168.317
-5.43803 75.6692 168.313
-5.26305 75.6655 167.94
-5.08812 76.1558 167.557
-5.22337 76.5087 166.646
-5.22313 76.6725 166.642
-5.22288 76.8363 166.638
-5.26109 78.5456 167.863
-5.24746 78.5216 167.441
-4.71733 77.9788 165.933
-5.26033 79.0403 167.852
-5.26008 79.2052 167.848
-5.24646 79.1796 167.426
-4.54569 78.458 165.56
-5.22195 79.0397 166.578
-5.22171 79.2034 166.574
-5.20776 79.5045 166.15
-5.22021 80.1854 166.552
-5.21995 80.3491 166.548
-5.2197 80.5127 166.545
-5.21945 80.6763 166.541
-5.24577 81.2279 167.368
-5.21894 81.0036 166.534
-4.66575 85.2089 164.098
-9.35421 9.83116 184.362
-9.1531 9.98992 183.914
-8.8799 9.97582 181.978
-9.10245 10.2065 182.904
-8.68233 10.3119 181.537
-8.48592 10.4671 181.102
-8.48571 10.6463 181.097
-8.07389 11.1031 179.747
-8.07369 11.2809 179.743
-8.26725 11.4855 180.161
-8.26705 11.6637 180.157
-8.26684 11.842 180.152
-8.24456 11.9892 179.666
-7.85895 12.1107 178.821
-8.051 12.3161 179.235
-7.83753 12.6091 178.333
-7.64638 12.9321 177.909
-7.436 13.3049 177.013
-7.39686 13.4118 176.081
-7.5849 13.6172 176.483
-7.19034 13.6944 175.209
-7.37699 13.8994 175.607
-7.35756 14.0377 175.144
-7.37663 14.2469 175.598
-7.58399 14.4903 176.46
-7.41504 14.6685 176.512
-7.41486 14.8431 176.507
-7.03984 14.949 175.692
-7.22665 15.1575 176.092
-7.03949 15.2966 175.683
-7.22629 15.5059 176.083
-6.85303 15.6084 175.272
-7.03897 15.8179 175.67
-7.0388 15.9917 175.665
-6.94688 16.5619 173.373
-6.96472 16.7753 173.818
-6.78058 16.9089 173.419
-7.14918 17.1581 174.205
-6.78025 17.252 173.411
-6.96404 17.4631 173.8
-6.96386 17.635 173.796
-6.99994 17.8963 174.696
-7.01803 18.1146 175.147
-7.03619 18.3339 175.601
-7.01767 18.461 175.138
-6.83201 18.5916 174.734
-7.22253 18.8981 175.991
-7.22198 19.4201 175.978
-7.05337 19.5985 176.029
-7.25962 19.8685 176.895
-7.07152 19.997 176.482
-7.44802 20.2651 177.296
-7.33129 20.389 174.516
-7.3311 20.5616 174.511
-6.96069 20.6399 173.715
-7.1452 20.8591 174.106
-6.77649 20.9358 173.313
-7.14483 21.2035 174.097
-7.14465 21.3756 174.092
-6.79351 21.5034 173.748
-6.82869 21.7839 174.648
-7.03222 22.0624 175.5
-7.2188 22.2871 175.899
-6.84595 22.3578 175.09
-7.03167 22.5827 175.487
-7.03148 22.7561 175.483
-7.21804 22.9824 175.882
-6.84523 23.0498 175.072
-7.03092 23.2763 175.469
-7.01241 23.3908 175.008
-7.01223 23.5638 175.003
-6.57358 23.8174 172.397
-6.93905 24.0969 173.172
-6.93886 24.2681 173.168
-6.57306 24.3286 172.384
-6.57289 24.499 172.379
-6.57271 24.6694 172.375
-6.75492 24.8961 172.76
-6.42375 25.0775 172.865
-6.62325 25.3689 173.701
-6.62307 25.5405 173.696
-6.43982 25.6535 173.299
-6.43965 25.8248 173.294
-6.62253 26.0553 173.683
-6.62235 26.2269 173.679
-6.42253 26.273 172.835
-6.42236 26.4438 172.831
-6.24047 26.5542 172.437
-6.35622 26.9417 171.044
-6.35605 27.1107 171.04
-6.17621 27.2185 170.654
-6.17604 27.3871 170.65
-6.33934 27.5501 170.592
-6.33917 27.7186 170.588
-6.17554 27.893 170.637
-6.02715 28.1364 171.123
-6.38745 28.4335 171.887
-6.22256 28.6092 171.937
-6.22239 28.779 171.933
-6.20629 28.8776 171.489
-5.8473 28.9164 170.72
-5.84713 29.085 170.716
-6.02597 29.3195 171.093
-6.2056 29.5551 171.473
-5.84664 29.5908 170.703
-5.611 29.985 168.586
-5.61085 30.1516 168.582
-5.59658 30.2449 168.155
-5.59643 30.411 168.151
-5.94854 30.7132 168.889
-5.62438 30.8925 168.991
-5.80091 31.1288 169.361
-5.63829 31.3023 169.41
-5.63813 31.4696 169.406
-5.65227 31.7141 169.831
-5.82974 31.9533 170.205
-5.46128 31.9003 169.02
-5.46112 32.0672 169.016
-5.46096 32.2341 169.012
-5.28522 32.329 168.635
-5.46063 32.5679 169.004
-5.21907 32.8438 166.512
-5.39212 33.0809 166.871
-5.39196 33.2458 166.867
-5.4053 33.4909 167.28
-5.40515 33.6561 167.276
-5.41855 33.9029 167.691
-5.43201 34.1507 168.108
-5.2705 34.3235 168.156
-5.44538 34.5662 168.522
-5.25697 34.572 167.727
-5.27003 34.8215 168.144
-5.25665 34.9032 167.719
-5.25649 35.0688 167.715
-5.25633 35.2344 167.711
-5.4307 35.4785 168.075
-5.256 35.5655 167.703
-5.97256 71.1044 169.559
-5.97231 71.2712 169.556
-5.94162 71.092 168.699
-5.44205 71.4556 168.42
-5.44181 71.6212 168.417
-5.97079 72.2714 169.533
-5.97054 72.4381 169.529
-5.97028 72.6047 169.525
-5.97003 72.7714 169.521
-5.96977 72.9381 169.517
-5.44036 72.6146 168.394
-5.96874 73.6047 169.502
-5.9252 73.1477 168.214
-5.74925 73.1499 167.841
-5.22651 72.8282 166.74
-5.23951 73.1671 167.152
-5.92392 73.9748 168.195
-5.76263 74.1536 168.243
-5.93853 74.4854 168.61
-5.95345 74.8322 169.031
-5.77658 74.8304 168.655
-5.77633 74.9962 168.651
-5.60024 74.9941 168.276
-5.79059 75.5104 169.069
-5.26378 75.1704 167.951
-5.07666 74.9877 167.162
-5.07642 75.152 167.158
-5.5586 75.3513 166.988
-5.21188 75.1822 166.258
-5.5581 75.6797 166.98
-5.38425 75.6761 166.613
-5.5576 76.008 166.973
-5.55735 76.1722 166.969
-5.19755 75.8186 165.829
-5.21043 76.1628 166.236
-5.38301 76.4951 166.595
-4.86654 76.1535 165.51
-5.5702 77.1778 167.368
-5.58412 77.5285 167.783
-5.58387 77.6933 167.779
-5.58361 77.8582 167.775
-5.58335 78.0231 167.771
-5.40862 78.0142 167.401
-5.58284 78.3529 167.764
-5.58258 78.5177 167.76
-5.23415 78.3336 167.024
-5.4076 78.6722 167.386
-5.23365 78.6618 167.017
-5.42086 79.1912 167.797
-5.38201 78.6983 166.534
-5.55526 79.0368 166.893
-5.54095 79.0116 166.475
-5.36766 79.0006 166.11
-5.02359 78.8162 165.388
-5.02335 78.9787 165.385
-5.19463 79.3154 165.739
-5.20751 79.6678 166.147
-5.20406 83.4955 166.05
-5.2038 83.6586 166.046
-5.20353 83.8217 166.043
-5.20327 83.9848 166.039
-5.20301 84.148 166.036
-5.20275 84.3111 166.032
-8.92887 9.94016 182.974
-8.90376 10.1826 182.467
-8.65834 10.8226 181.034
-8.43986 10.9477 180.118
-8.63467 11.1519 180.538
-8.26745 11.3072 180.166
-8.26725 11.4855 180.161
-8.63404 11.6879 180.524
-8.43884 11.8389 180.094
-8.24456 11.9892 179.666
-8.0512 12.1388 179.24
-8.0296 12.2845 178.759
-8.22198 12.4903 179.173
-8.02921 12.6383 178.75
-8.02901 12.8151 178.745
-8.22137 13.0222 179.159
-7.77436 13.2983 176.9
-7.75375 13.4392 176.43
-7.75357 13.6138 176.426
-7.37716 13.7256 175.611
-7.35774 13.8644 175.149
-7.17129 14.0058 174.744
-7.37663 14.2469 175.598
-7.22736 14.4606 176.11
-7.41504 14.6685 176.512
-7.227 14.8091 176.101
-7.03984 14.949 175.692
-7.39507 15.1539 176.036
-7.39489 15.328 176.031
-7.3947 15.5022 176.027
-7.02079 15.6048 175.216
-6.83504 15.7422 174.811
-6.92914 16.3496 172.93
-6.76342 16.5246 172.981
-6.94672 16.7335 173.368
-6.76309 16.8669 172.972
-7.13066 17.1153 173.753
-7.13049 17.2872 173.749
-6.94604 17.4196 173.351
-7.14865 17.6751 174.191
-6.99994 17.8963 174.696
-7.01803 18.1146 175.147
-7.01785 18.2878 175.143
-7.39122 18.5459 175.944
-7.20384 18.6769 175.536
-7.01732 18.8073 175.129
-7.20347 19.0241 175.527
-7.20329 19.1976 175.522
-7.03512 19.3755 175.574
-6.84895 19.5043 175.167
-7.61792 19.9101 177.249
-7.42861 20.0389 176.834
-7.24019 20.167 176.422
-7.14574 20.3426 174.119
-7.51749 20.6087 174.91
-7.33092 20.7342 174.507
-7.33073 20.9068 174.503
-7.14502 21.0313 174.101
-7.14483 21.2035 174.097
-7.14465 21.3756 174.092
-6.97786 21.5525 174.144
-7.36811 21.8793 175.393
-7.38722 22.1084 175.848
-7.19994 22.231 175.44
-7.19975 22.4044 175.436
-7.19957 22.5778 175.431
-7.01316 22.6989 175.025
-7.38625 22.9774 175.825
-7.19899 23.0979 175.418
-7.0126 23.2179 175.012
-7.19861 23.4447 175.409
-7.1049 23.9205 173.121
-6.92116 24.037 172.726
-6.75564 24.213 172.777
-6.73809 24.3234 172.329
-6.73791 24.4938 172.325
-6.92043 24.7201 172.709
-6.58948 24.9014 172.815
-6.60632 25.1346 173.257
-6.60615 25.3058 173.252
-6.60597 25.477 173.248
-6.9734 25.7655 174.032
-6.42306 25.7607 172.848
-6.60543 25.9905 173.235
-6.42271 26.1022 172.84
-6.78844 26.393 173.62
-6.78825 26.5645 173.615
-6.60471 26.6751 173.218
-6.70081 26.9967 171.372
-6.53654 27.1718 171.423
-6.33969 27.2128 170.6
-6.33952 27.3814 170.596
-6.51931 27.612 170.973
-6.16001 27.6566 170.208
-6.17554 27.893 170.637
-6.02715 28.1364 171.123
-6.38745 28.4335 171.887
-6.20664 28.5387 171.498
-6.3871 28.7731 171.879
-6.37058 28.8716 171.435
-6.3704 29.041 171.431
-6.01079 29.0791 170.662
-6.18993 29.3135 171.039
-6.18975 29.4825 171.035
-6.01028 29.5848 170.65
-5.77282 29.8124 168.537
-5.77266 29.9789 168.533
-5.94904 30.2125 168.901
-5.94887 30.3794 168.897
-5.77218 30.4785 168.521
-5.61037 30.6512 168.57
-5.96343 30.9552 169.312
-5.97838 31.1984 169.737
-5.81546 31.3724 169.786
-5.81529 31.5401 169.782
-5.80041 31.6306 169.349
-5.9777 31.869 169.72
-5.62341 31.8939 168.967
-5.62325 32.0608 168.963
-5.79974 32.2996 169.332
-5.977 32.5395 169.704
-5.56624 32.9886 167.239
-5.39212 33.0809 166.871
-5.56592 33.319 167.231
-5.21861 33.3372 166.5
-5.40515 33.6561 167.276
-5.41855 33.9029 167.691
-5.59326 34.144 168.055
-5.43185 34.3167 168.104
-5.43169 34.4827 168.099
-5.25697 34.572 167.727
-5.60669 34.892 168.461
-5.60652 35.0584 168.457
-5.25649 35.0688 167.715
-5.43087 35.3125 168.079
-5.60601 35.5573 168.445
-5.41691 35.5586 167.651
-6.32833 72.0957 170.299
-6.13355 71.9249 169.488
-5.60266 71.9394 168.357
-5.60241 72.105 168.353
-5.60217 72.2705 168.35
-5.95452 72.7612 169.09
-5.95426 72.9274 169.086
-5.60117 72.9326 168.335
-5.91041 72.8065 167.796
-5.91015 72.9715 167.792
-5.9099 73.1365 167.789
-6.10116 73.643 168.577
-5.92444 73.644 168.202
-5.92418 73.8094 168.199
-5.92392 73.9748 168.195
-5.41265 73.8239 167.506
-5.93853 74.4854 168.61
-5.76213 74.4844 168.236
-5.77658 74.8304 168.655
-5.95294 75.1645 169.024
-5.77607 75.162 168.647
-5.77582 75.3278 168.644
-5.41093 74.9765 167.48
-5.41068 75.1412 167.477
-5.41043 75.3058 167.473
-5.90787 75.8517 167.716
-5.21164 75.3457 166.255
-5.2114 75.5091 166.251
-5.21116 75.6726 166.247
-5.19779 75.6555 165.832
-5.19755 75.8186 165.829
-5.58412 77.5285 167.783
-5.58387 77.6933 167.779
-5.40811 78.3432 167.393
-5.40785 78.5077 167.39
-5.06096 78.324 166.656
-5.01194 77.9808 164.995
-5.0117 78.143 164.992
-4.85231 78.9678 165.024
-4.85207 79.13 165.021
-5.04604 81.1513 166.165
-5.52566 81.1823 165.998
-5.5254 81.3455 165.995
-5.52514 81.5086 165.991
-4.67891 82.7508 164.571
-4.67866 82.9125 164.567
-5.20353 83.8217 166.043
-5.20327 83.9848 166.039
-5.20301 84.148 166.036
-5.20275 84.3111 166.032
-5.16599 83.786 164.793
-5.16574 83.948 164.79
-5.16548 84.1099 164.786
-5.16522 84.2718 164.783
-5.16496 84.4337 164.779
-5.1647 84.5957 164.775
-5.16417 84.9195 164.768
-9.30279 10.1423 183.348
-9.27681 10.2037 182.844
-9.65091 10.5876 183.212
-9.02814 10.6654 181.409
-8.83104 10.8197 180.975
-8.85466 11.0275 181.458
-9.0519 11.2334 181.885
-9.00296 11.354 180.901
-9.00274 11.5331 180.897
-8.82996 11.7152 180.951
-8.17897 11.897 178.236
-8.8056 12.2206 180.451
-8.61007 12.3703 180.021
-8.58685 12.5161 179.535
-8.19992 12.6351 178.692
-8.39262 12.8416 179.106
-7.75412 13.0899 176.439
-7.75394 13.2646 176.435
-7.75375 13.4392 176.43
-7.54523 13.5484 175.559
-7.73305 13.7535 175.959
-7.54487 13.896 175.55
-7.71245 14.0663 175.489
-7.73249 14.276 175.945
-7.94202 14.5201 176.811
-7.5838 14.6649 176.455
-7.58362 14.8395 176.451
-7.39525 14.9797 176.04
-7.37573 15.1156 175.575
-7.75168 15.3596 176.38
-7.56299 15.4985 175.97
-7.56281 15.6726 175.966
-7.56262 15.8467 175.961
-7.54265 15.9804 175.497
-7.11292 16.3865 173.322
-7.29736 16.5956 173.711
-7.27832 16.7257 173.257
-7.29701 16.9394 173.702
-7.48226 17.1501 174.092
-7.48208 17.3224 174.088
-7.48189 17.4947 174.084
-7.14865 17.6751 174.191
-7.16708 17.8923 174.64
-7.1669 18.065 174.636
-7.35287 18.2795 175.031
-7.53967 18.4949 175.428
-7.3525 18.6257 175.022
-7.35231 18.7988 175.018
-7.35212 18.9719 175.013
-7.53891 19.189 175.41
-7.53871 19.3624 175.405
-7.55827 19.5853 175.861
-7.55808 19.7592 175.856
-7.76663 20.0299 176.721
-7.2935 20.1155 173.617
-7.47866 20.3334 174.007
-7.66464 20.5524 174.399
-7.47828 20.6777 173.998
-7.47809 20.8498 173.994
-7.66406 21.0699 174.386
-7.31133 21.1988 174.041
-7.68366 21.4688 174.832
-7.51634 21.6465 174.884
-7.55554 21.9297 175.796
-7.36792 22.0527 175.388
-7.36773 22.2261 175.384
-7.55494 22.4511 175.782
-7.55474 22.6249 175.778
-7.18061 22.694 174.97
-7.36695 22.9196 175.366
-7.34755 23.0349 174.905
-7.16137 23.1546 174.501
-7.16117 23.3271 174.497
-7.08677 23.6903 172.68
-7.08658 23.8611 172.675
-7.45495 24.1413 173.453
-7.08621 24.2026 172.667
-7.08603 24.3733 172.662
-7.26968 24.5998 173.048
-6.92043 24.7201 172.709
-7.30705 25.0668 173.938
-6.95591 25.1866 173.595
-6.95573 25.3581 173.59
-7.14008 25.5881 173.981
-6.77165 25.6428 173.189
-6.77146 25.8139 173.185
-6.77128 25.985 173.18
-7.13931 26.2758 173.963
-7.12063 26.3818 173.509
-6.75328 26.4327 172.721
-6.50358 26.7013 170.558
-6.6837 26.9303 170.935
-6.50323 27.0385 170.55
-6.50305 27.2071 170.546
-6.50288 27.3757 170.542
-6.5027 27.5443 170.537
-6.69991 27.8436 171.351
-6.71692 28.0821 171.786
-6.73401 28.3219 172.223
-6.55206 28.4276 171.833
-6.73363 28.6622 172.215
-6.37075 28.7022 171.439
-6.55151 28.9369 171.82
-6.7158 29.1006 171.761
-6.71561 29.2703 171.757
-6.35378 29.3075 170.985
-6.53401 29.543 171.364
-6.28902 29.7719 169.233
-6.28885 29.9391 169.229
-6.11105 30.0395 168.852
-6.11088 30.2063 168.848
-5.93388 30.3058 168.472
-6.11054 30.54 168.839
-5.94854 30.7132 168.889
-5.96343 30.9552 169.312
-5.97838 31.1984 169.737
-6.15647 31.4363 170.11
-5.97804 31.5337 169.728
-6.15612 31.7724 170.101
-6.14033 31.8625 169.666
-5.9624 31.9587 169.287
-5.78526 32.0544 168.91
-5.96205 32.2931 169.279
-5.90161 33.0548 167.552
-5.72643 33.1472 167.182
-5.72626 33.3124 167.178
-5.56575 33.4842 167.227
-5.91577 33.7985 167.957
-5.75456 33.9712 168.006
-5.59326 34.144 168.055
-5.94514 34.4627 168.792
-5.76856 34.5525 168.416
-5.76839 34.7188 168.412
-5.59259 34.8078 168.039
-5.59242 34.9737 168.035
-5.75336 35.1327 167.978
-5.75319 35.2986 167.974
-5.59191 35.4715 168.023
-5.75073 72.1595 167.863
-5.76513 72.4992 168.281
-6.11805 72.9907 169.021
-6.27946 73.1434 168.964
-6.44076 73.296 168.907
-6.247 73.1209 168.109
-6.26267 73.4637 168.528
-5.73442 73.1387 167.418
-5.73417 73.3034 167.414
-5.57358 73.4813 167.462
-6.29369 74.4872 169.364
-6.29342 74.6537 169.361
-6.09932 74.8033 168.55
-6.27627 75.1371 168.919
-6.09879 75.1347 168.543
-6.06963 75.0134 167.682
-6.08247 75.4493 168.109
-5.87874 74.9957 166.891
-5.35812 74.6637 165.803
-5.35788 74.8268 165.799
-5.35763 74.9898 165.796
-5.35739 75.1529 165.792
-5.35714 75.3159 165.788
-5.3569 75.4789 165.785
-5.37017 75.8224 166.192
-5.90657 76.6762 167.697
-6.08218 77.0125 168.062
-6.09745 77.3644 168.481
-5.90498 77.6654 167.675
-5.72964 77.6574 167.305
-5.90445 77.995 167.668
-5.68798 77.5029 166.04
-5.51482 77.4954 165.677
-5.68747 77.8294 166.033
-5.86085 78.165 166.39
-5.86059 78.3286 166.386
-5.34167 77.9755 165.305
-5.17003 77.9669 164.945
-5.16978 78.1291 164.941
-5.54043 79.3388 166.468
-5.19463 79.3154 165.739
-5.1813 79.2898 165.327
-5.6987 79.9789 166.402
-5.68452 81.1677 165.947
-5.35004 82.9569 165.596
-4.8369 82.5748 164.524
-4.83665 82.7364 164.521
-10.0559 10.0024 184.115
-9.82583 10.222 183.162
-9.65114 10.4063 183.217
-9.65091 10.5876 183.212
-9.59834 10.7125 182.214
-8.95473 11.2952 179.932
-8.78288 11.4764 179.986
-8.97834 11.6817 180.406
-8.97812 11.8603 180.401
-9.14986 12.0357 180.337
-9.34655 12.2428 180.759
-8.95341 12.3639 179.904
-8.95319 12.542 179.899
-8.7579 12.6905 179.472
-8.92881 12.8649 179.409
-9.12398 13.0729 179.826
-8.47216 13.1434 177.141
-8.47196 13.3188 177.137
-8.47176 13.4942 177.132
-8.44923 13.6348 176.661
-8.64029 13.8415 177.065
-8.44882 13.9846 176.652
-8.4264 14.1236 176.183
-8.2798 14.338 176.7
-8.11087 14.5165 176.753
-7.92096 14.6578 176.342
-7.92076 14.8323 176.337
-8.11027 15.0413 176.74
-8.08876 15.1777 176.271
-7.89941 15.317 175.861
-8.10967 15.5661 176.726
-7.89902 15.6651 175.852
-7.71056 15.803 175.444
-7.81583 16.2808 174.002
-7.81564 16.4531 173.997
-7.62936 16.5877 173.598
-7.60945 16.7178 173.145
-7.60926 16.8892 173.141
-7.79462 17.0992 173.529
-7.79442 17.271 173.524
-7.83484 17.5304 174.424
-7.68799 17.7518 174.931
-7.6878 17.9249 174.927
-7.50081 18.0567 174.524
-7.68741 18.271 174.918
-7.68722 18.4441 174.914
-7.68702 18.6172 174.909
-7.87445 18.8333 175.305
-7.68663 18.9633 174.9
-7.68643 19.1363 174.896
-7.49948 19.2653 174.493
-7.79144 19.7584 173.457
-7.6058 19.885 173.06
-7.421 20.0109 172.665
-7.62513 20.278 173.5
-7.62494 20.4497 173.495
-7.62474 20.6214 173.491
-7.9973 20.8879 174.277
-7.9971 21.0604 174.272
-8.18453 21.2814 174.665
-7.68366 21.4688 174.832
-7.89162 21.7462 175.687
-8.08035 21.9705 176.087
-8.26993 22.1959 176.488
-8.07992 22.3188 176.078
-7.8908 22.4411 175.669
-7.70254 22.5629 175.262
-7.70234 22.7362 175.258
-8.07907 23.0153 176.06
-7.88996 23.136 175.651
-7.78713 23.4447 173.358
-7.62129 23.6214 173.41
-7.62109 23.793 173.406
-7.41671 23.8507 172.564
-7.601 24.0759 172.949
-7.78612 24.3021 173.337
-7.78591 24.4735 173.332
-7.62009 24.6504 173.384
-7.28832 24.8327 173.492
-7.84624 25.1763 174.676
-7.86654 25.4129 175.128
-7.84582 25.5217 174.667
-7.84561 25.6944 174.662
-7.65853 25.8079 174.26
-7.47232 25.9208 173.86
-7.65812 26.1524 174.252
-7.65791 26.3247 174.247
-7.47171 26.4364 173.847
-7.02905 26.6465 171.271
-7.21109 26.8764 171.65
-7.2109 27.0461 171.646
-7.19224 27.1487 171.203
-7.19205 27.318 171.199
-7.01015 27.4256 170.812
-7.02792 27.6625 171.245
-6.88149 27.9065 171.736
-6.8813 28.0762 171.731
-6.69954 28.1823 171.343
-6.88092 28.4157 171.723
-6.88073 28.5854 171.719
-6.88054 28.7551 171.714
-6.88035 28.9248 171.71
-7.06253 29.1604 172.092
-6.69843 29.1982 171.318
-6.61318 29.5923 169.129
-6.97182 29.8925 169.875
-6.61281 29.9267 169.12
-6.61263 30.0939 169.116
-6.43423 30.1938 168.74
-6.62905 30.5025 169.537
-6.46654 30.6765 169.587
-6.30392 30.8504 169.637
-6.66229 31.1573 170.388
-6.6621 31.3256 170.384
-6.48225 31.4235 170.001
-6.48207 31.5914 169.997
-6.48188 31.7594 169.993
-6.4817 31.9274 169.989
-6.46507 32.017 169.554
-6.64402 32.2567 169.927
-6.41563 32.6958 168.247
-6.39931 32.7827 167.82
-6.39913 32.9486 167.816
-6.04697 32.9686 167.08
-6.39876 33.2803 167.808
-6.23787 33.453 167.858
-6.25341 33.7003 168.276
-6.26903 33.9488 168.697
-6.09183 34.0398 168.322
-6.09166 34.2061 168.318
-6.26848 34.4488 168.685
-6.44608 34.6926 169.053
-5.91489 34.628 167.937
-6.09093 34.8711 168.302
-6.26774 35.1153 168.668
-6.09057 35.2036 168.294
-6.58511 73.2706 168.425
-6.58483 73.4363 168.422
-6.60138 73.7807 168.843
-6.0694 73.7831 167.721
-6.06914 73.948 167.718
-6.6 74.6111 168.824
-6.56844 74.3266 167.963
-6.4076 74.5057 168.013
-6.60147 75.0194 168.803
-5.84938 74.4743 166.067
-5.703 75.8126 166.506
-5.89184 76.3275 167.282
-6.40379 76.819 167.96
-6.22704 76.813 167.589
-6.22676 76.9778 167.585
-6.22622 77.3074 167.578
-6.19686 77.0118 166.73
-6.18094 76.9912 166.311
-6.35568 77.3254 166.67
-6.1804 77.3184 166.304
-6.19578 77.6677 166.715
-6.19551 77.8317 166.711
-6.17959 77.8091 166.293
-6.19497 78.1596 166.704
-6.21014 78.6761 167.113
-6.20987 78.8404 167.109
-6.20959 79.0048 167.106
-6.22511 79.3597 167.52
-6.22483 79.5244 167.516
-6.20876 79.4977 167.095
-5.67025 79.4356 165.582
-5.64409 79.1331 164.753
-6.00246 80.8121 165.851
-5.33761 82.1107 165.202
-5.32393 82.0784 164.791
-5.32366 82.2404 164.788
-5.45586 82.2335 163.909
-5.46929 82.5893 164.308
-5.81163 83.6002 165.002
-5.6524 84.4265 165.036
-10.0006 10.3123 183.102
-9.79888 10.376 182.659
-9.57214 10.8644 181.716
-9.5719 11.0443 181.711
-9.97149 11.2771 182.574
-9.15076 11.3215 180.356
-9.74418 11.5809 181.636
-9.32214 11.6755 180.287
-9.34702 11.8849 180.768
-9.14986 12.0357 180.337
-8.95363 12.1858 179.908
-9.51848 12.4185 180.694
-8.73477 12.4807 178.998
-8.90523 12.6546 178.935
-8.90501 12.8318 178.93
-8.85676 13.204 177.965
-8.66381 13.3495 177.548
-8.64071 13.4908 177.074
-8.44923 13.6348 176.661
-8.44902 13.8097 176.656
-8.61731 13.9811 176.594
-8.44861 14.1596 176.647
-8.2798 14.338 176.7
-8.49295 14.5835 177.574
-8.49274 14.7593 177.569
-8.6619 14.9314 177.506
-8.46989 15.0723 177.091
-8.46968 15.2476 177.086
-8.25681 15.3484 176.209
-8.44694 15.5585 176.611
-8.06695 15.6613 175.795
-8.2562 15.8717 176.195
-7.98197 16.2769 173.945
-7.79538 16.4119 173.546
-7.98159 16.6214 173.936
-7.795 16.7556 173.537
-7.9605 16.9234 173.476
-7.96031 17.0951 173.472
-7.62862 17.2751 173.581
-7.83484 17.5304 174.424
-7.85509 17.7476 174.875
-7.48152 17.8392 174.075
-7.66759 18.0525 174.467
-7.8545 18.2668 174.861
-7.66721 18.3978 174.458
-7.66701 18.5704 174.454
-7.85391 18.7859 174.848
-7.85371 18.9589 174.844
-7.85351 19.1319 174.839
-7.66623 19.2609 174.436
-7.40227 19.6204 172.23
-7.95686 19.9255 173.395
-7.95666 20.0971 173.391
-8.14306 20.3148 173.78
-8.16406 20.5383 174.228
-8.16385 20.7107 174.224
-7.79026 20.7883 173.43
-7.97633 21.0076 173.82
-8.01776 21.2862 174.723
-8.41683 21.6124 175.981
-8.05939 21.7413 175.63
-8.08035 21.9705 176.087
-8.26993 22.1959 176.488
-8.05875 22.2624 175.616
-8.24778 22.4879 176.016
-8.24756 22.662 176.011
-8.24735 22.8361 176.007
-8.0579 22.9572 175.599
-8.2253 23.1256 175.537
-7.7672 23.2152 172.915
-7.767 23.3863 172.91
-7.95245 23.6109 173.297
-7.5818 23.6747 172.512
-7.5816 23.8454 172.508
-7.95183 24.1253 173.284
-7.76599 24.2416 172.889
-7.78591 24.4735 173.332
-7.62009 24.6504 173.384
-7.82603 24.9409 174.226
-7.45397 24.9988 173.432
-7.45377 25.1703 173.427
-7.63907 25.3996 173.817
-7.45337 25.5132 173.419
-7.45317 25.6847 173.414
-7.63845 25.9152 173.804
-7.26813 25.9684 173.014
-7.26793 26.1395 173.01
-7.7431 26.6514 172.376
-7.7429 26.8219 172.372
-7.19263 26.8101 171.211
-7.19243 26.9794 171.207
-7.01053 27.0878 170.821
-7.35568 27.3122 171.143
-7.37437 27.5493 171.578
-7.21012 27.725 171.629
-7.412 28.0272 172.454
-7.4118 28.1976 172.45
-7.22808 28.3039 172.058
-7.04519 28.4097 171.668
-7.04499 28.5794 171.664
-7.22748 28.8142 172.045
-7.22728 28.9842 172.041
-7.22708 29.1543 172.037
-6.84483 29.1204 170.826
-7.15263 29.7912 170.257
-6.79201 29.8259 169.499
-6.97163 30.0605 169.871
-6.79164 30.161 169.491
-6.79145 30.3286 169.487
-6.80854 30.5707 169.913
-7.00649 30.8833 170.721
-7.00629 31.0521 170.717
-6.64535 31.0811 169.955
-6.82513 31.3191 170.329
-6.82493 31.4875 170.325
-6.64478 31.5849 169.943
-6.64459 31.7529 169.939
-6.82435 31.9924 170.313
-6.64421 32.0887 169.931
-6.57666 32.6891 168.193
-6.22293 32.7104 167.453
-6.57628 33.0216 168.184
-6.39895 33.1144 167.812
-6.23805 33.2871 167.862
-6.41471 33.5272 168.226
-6.25341 33.7003 168.276
-6.44684 34.0245 169.069
-6.44665 34.1915 169.065
-6.60827 34.3515 169.007
-6.42999 34.4418 168.631
-6.4298 34.6084 168.627
-6.42961 34.775 168.623
-6.42942 34.9416 168.619
-6.42923 35.1082 168.615
-6.5515 74.3123 167.539
-6.53463 74.2981 167.117
-6.37406 74.8054 167.158
-6.55013 75.1365 167.52
-6.58272 75.9971 168.352
-6.58244 76.1627 168.349
-6.58216 76.3283 168.345
-6.58188 76.4939 168.341
-6.5816 76.6595 168.337
-6.58132 76.8251 168.334
-6.58104 76.9906 168.33
-6.58076 77.1562 168.326
-6.58047 77.3217 168.322
-6.53257 76.8395 167.048
-6.51577 76.8191 166.628
-6.34018 76.8133 166.263
-6.33991 76.9769 166.259
-5.99131 76.8016 165.536
-6.00616 77.1481 165.943
-6.00589 77.3113 165.94
-5.83214 77.3043 165.577
-5.83188 77.4672 165.574
-6.02027 77.9871 166.342
-5.6721 78.2957 165.607
-5.67184 78.4586 165.604
-6.1635 79.3294 165.831
-6.16322 79.4925 165.827
-5.97134 82.4494 164.976
-5.98612 82.8081 165.38
-5.98585 82.9708 165.377
-5.81163 83.6002 165.002
-5.80996 84.5735 164.981
-10.9893 10.4964 184.804
-10.1179 11.0642 182.022
-10.3469 11.3006 182.949
-10.3185 11.4516 182.447
-10.1172 11.605 182.008
-9.71764 11.7301 181.141
-9.51919 11.8817 180.708
-9.71716 12.0889 181.132
-9.32145 12.211 180.273
-9.29601 12.5355 179.781
-9.29578 12.7135 179.776
-9.4922 12.9216 180.195
-9.22035 13.2311 178.321
-8.83309 13.3461 177.489
-8.83288 13.5218 177.485
-9.02572 13.7292 177.893
-8.80912 13.8379 177.007
-8.78568 13.9776 176.535
-8.59444 14.1201 176.125
-8.80847 14.3638 176.993
-8.63945 14.5427 177.047
-8.44799 14.6842 176.634
-8.83114 14.9277 177.448
-8.61604 15.0303 176.566
-8.42516 15.1702 176.156
-8.23516 15.3096 175.747
-8.6154 15.5547 176.553
-8.42453 15.6935 176.142
-8.23455 15.8315 175.733
-7.96147 16.0644 173.498
-8.12687 16.2323 173.437
-8.33537 16.4825 174.279
-8.1476 16.6174 173.879
-7.9607 16.7516 173.481
-7.9605 16.9234 173.476
-7.96031 17.0951 173.472
-7.79442 17.271 173.524
-7.83484 17.5304 174.424
-7.83464 17.7031 174.419
-8.21017 17.9575 175.213
-8.20996 18.1309 175.209
-7.83406 18.2209 174.406
-8.18812 18.4312 174.743
-8.18791 18.6042 174.738
-7.99998 18.7344 174.336
-7.81292 18.8639 173.936
-8.18729 19.123 174.725
-7.73149 19.441 172.122
-7.75125 19.6602 172.562
-7.91581 19.8264 172.501
-8.10115 20.0424 172.886
-8.10095 20.2136 172.882
-7.93569 20.3894 172.934
-7.75027 20.5142 172.54
-8.3514 21.1037 174.612
-8.37303 21.3302 175.065
-8.41683 21.6124 175.981
-8.62979 21.8925 176.847
-8.24843 21.9656 176.029
-8.24821 22.1397 176.025
-8.60639 22.3603 176.368
-8.22617 22.4311 175.555
-8.60593 22.7093 176.359
-8.60571 22.8837 176.355
-8.01588 22.8417 174.683
-8.39278 23.1204 175.479
-7.9323 23.21 172.858
-8.11806 23.4342 173.245
-7.93189 23.5521 172.849
-8.11764 23.777 173.236
-8.09644 23.8888 172.784
-8.09623 24.0598 172.78
-7.93106 24.2362 172.832
-8.32518 24.5799 174.063
-8.15884 24.7576 174.116
-7.80572 24.8785 173.773
-7.82583 25.1132 174.221
-8.17948 25.3379 174.557
-7.99175 25.4522 174.156
-7.99153 25.6244 174.151
-8.17882 25.8558 174.544
-8.17859 26.0284 174.54
-7.99089 26.141 174.138
-7.53951 26.5254 171.547
-7.90747 26.816 172.315
-7.33747 26.7384 170.719
-7.70274 27.0285 171.479
-7.33708 27.0761 170.71
-7.35568 27.3122 171.143
-7.74186 27.6742 172.35
-7.76166 27.9139 172.791
-7.59636 28.0909 172.843
-7.57657 28.1916 172.394
-7.57636 28.362 172.389
-7.20933 28.4037 171.612
-7.20913 28.5733 171.608
-7.20893 28.743 171.604
-7.20873 28.9126 171.6
-7.19008 29.0106 171.157
-7.13463 29.5503 169.828
-7.49707 29.8517 170.58
-7.31515 29.9531 170.197
-6.95394 29.9871 169.44
-6.95374 30.1547 169.436
-6.97124 30.3964 169.862
-7.33304 30.7016 170.615
-6.98863 30.8076 170.287
-7.16952 31.0456 170.662
-6.98824 31.1443 170.279
-6.80777 31.2425 169.897
-7.16891 31.5516 170.65
-6.98764 31.6492 170.266
-6.78992 31.6688 169.454
-6.78972 31.8363 169.45
-6.98705 32.154 170.254
-6.5603 32.4442 167.774
-6.73757 32.6823 168.138
-6.73738 32.8485 168.134
-6.55974 32.9417 167.762
-6.55955 33.1076 167.758
-6.57591 33.3541 168.176
-6.59234 33.6017 168.597
-6.60884 33.8505 169.019
-6.60865 34.0175 169.015
-6.59176 34.1015 168.585
-6.59157 34.2681 168.581
-6.76976 34.5114 168.948
-6.76956 34.6784 168.944
-6.94853 34.9231 169.314
-6.5908 34.9345 168.564
-6.38037 35.7604 167.32
-6.8887 74.6289 167.849
-7.06661 74.961 168.214
-6.88813 74.9593 167.842
-6.90541 75.3064 168.261
-6.90512 75.472 168.257
-6.90484 75.6375 168.253
-6.90455 75.8031 168.249
-6.90426 75.9686 168.246
-6.90397 76.1342 168.242
-6.90368 76.2997 168.238
-6.90339 76.4652 168.235
-6.19635 75.9525 166.765
-6.87013 76.3368 167.375
-6.86985 76.5015 167.371
-6.86956 76.6662 167.368
-6.86927 76.8309 167.364
-6.86899 76.9956 167.36
-6.8687 77.1603 167.357
-6.86841 77.325 167.353
-6.5309 77.8254 167.026
-6.53062 77.9898 167.022
-6.72394 78.5168 167.804
-6.72365 78.6818 167.8
-6.52977 78.4827 167.011
-6.52948 78.647 167.008
-6.5292 78.8112 167.004
-6.48204 78.3214 165.748
-6.48176 78.4845 165.744
-6.48148 78.6476 165.741
-6.4812 78.8107 165.737
-6.48092 78.9737 165.734
-6.48007 79.463 165.723
-6.47978 79.626 165.719
-6.4795 79.7891 165.716
-6.49531 80.3067 166.121
-6.49502 80.4702 166.117
-6.49473 80.6336 166.113
-6.47806 80.6042 165.698
-6.3033 82.1274 165.291
-6.30302 82.29 165.287
-6.30273 82.4525 165.283
-6.2866 82.419 164.872
-6.12874 82.5965 164.92
-6.12846 82.7587 164.917
-6.12818 82.9209 164.913
-5.93996 84.3929 164.102
-10.7243 10.961 183.336
-10.724 11.1426 183.331
-10.6945 11.2944 182.826
-10.6943 11.4755 182.821
-10.6649 11.6259 182.319
-10.6937 11.8377 182.811
-9.88978 11.9063 181.076
-9.69099 12.0574 180.644
-10.0888 12.2938 181.496
-10.0613 12.441 181.001
-9.66423 12.5614 180.144
-9.44169 12.6773 179.236
-9.44145 12.8549 179.231
-9.55987 13.2242 178.202
-9.55963 13.4008 178.198
-9.17107 13.5149 177.367
-9.17085 13.6906 177.363
-9.14639 13.8309 176.889
-9.14617 14.0061 176.885
-9.14594 14.1813 176.88
-9.00094 14.3969 177.403
-9.19407 14.6063 177.811
-8.97671 14.7107 176.925
-9.00027 14.9239 177.389
-9.00004 15.0996 177.385
-8.59318 15.1665 176.098
-8.59296 15.3409 176.093
-8.59275 15.5153 176.089
-8.78351 15.7257 176.49
-8.97514 15.937 176.893
-8.502 16.1334 174.23
-8.12687 16.2323 173.437
-8.29214 16.4001 173.375
-8.10545 16.5344 172.979
-8.47907 16.7814 173.76
-8.10506 16.8771 172.971
-8.31289 17.1298 173.808
-8.52274 17.3849 174.654
-7.9806 17.4824 173.914
-8.16762 17.6947 174.305
-8.35548 17.908 174.699
-8.35527 18.081 174.694
-8.16701 18.2124 174.292
-8.35485 18.4269 174.685
-7.9794 18.5153 173.888
-8.16639 18.73 174.279
-8.35421 18.9457 174.672
-8.08085 19.4803 172.453
-8.08065 19.651 172.448
-8.2663 19.8666 172.833
-8.08024 19.9925 172.44
-8.08004 20.1633 172.436
-8.07984 20.334 172.431
-8.2869 20.6025 173.264
-8.30822 20.826 173.71
-8.54022 21.1521 175.012
-8.56239 21.3792 175.466
-8.58468 21.6075 175.923
-8.58445 21.7815 175.918
-8.39433 21.9051 175.51
-8.77477 22.1808 176.314
-8.39389 22.2524 175.502
-8.56105 22.4209 175.439
-8.75102 22.6466 175.838
-8.37128 22.7158 175.029
-8.56037 22.9416 175.426
-8.28377 23.0861 173.196
-8.47068 23.3104 173.585
-8.47046 23.4822 173.58
-8.28313 23.6003 173.183
-8.47002 23.8258 173.572
-8.46979 23.9976 173.567
-8.09623 24.0598 172.78
-8.49141 24.4022 174.01
-8.51334 24.6362 174.46
-8.15884 24.7576 174.116
-8.53516 25.0444 174.907
-8.53493 25.2174 174.903
-7.97121 25.2167 173.708
-7.78488 25.3307 173.311
-8.34557 25.6774 174.491
-7.94992 25.6679 173.245
-7.76413 25.7806 172.85
-8.13591 26.0699 173.63
-7.86749 26.1745 171.444
-7.68382 26.2849 171.057
-7.68362 26.4542 171.052
-7.68342 26.6234 171.048
-7.68321 26.7926 171.044
-7.86645 27.0226 171.423
-7.86624 27.1922 171.418
-8.07105 27.4917 172.241
-7.74186 27.6742 172.35
-7.55749 27.7817 171.959
-7.94695 28.1488 173.178
-7.74123 28.1855 172.337
-7.92598 28.4203 172.722
-7.7408 28.5263 172.329
-7.37316 28.5672 171.553
-7.92533 28.9327 172.709
-7.55604 28.9719 171.929
-7.66039 29.5079 170.533
-7.66019 29.6766 170.529
-7.65998 29.8453 170.524
-7.29654 29.8798 169.765
-7.47754 30.115 170.137
-7.47734 30.2833 170.133
-7.31454 30.458 170.185
-7.51524 30.7707 170.996
-7.33283 30.8703 170.611
-7.51482 31.1089 170.988
-7.51461 31.2779 170.983
-7.15084 31.306 170.219
-7.33201 31.545 170.594
-7.15043 31.6425 170.211
-7.33159 31.8823 170.586
-7.15003 31.9791 170.203
-7.0773 32.4148 168.461
-7.25642 32.6538 168.829
-7.25622 32.8208 168.824
-7.0767 32.9145 168.449
-7.0765 33.0811 168.445
-6.91522 33.2546 168.496
-6.93254 33.5025 168.918
-7.11183 33.7446 169.287
-7.12972 33.9949 169.713
-6.94954 34.0864 169.334
-6.94934 34.2538 169.33
-7.11101 34.4139 169.271
-7.11081 34.5813 169.267
-7.29086 34.8263 169.638
-6.75226 34.7607 168.514
-7.23497 35.4845 168.326
-7.07387 35.6584 168.377
-7.25288 35.9045 168.744
-7.24559 75.1286 168.585
-7.20787 75.2609 167.727
-7.22595 75.6087 168.146
-7.24411 75.9582 168.566
-6.51618 75.2682 166.674
-6.48543 74.9835 165.834
-7.02989 76.3223 167.322
-6.67605 76.1489 166.59
-7.01151 76.4673 166.896
-6.83455 76.4623 166.529
-6.85101 77.1391 166.935
-6.86812 77.4896 167.349
-6.86783 77.6543 167.345
-6.33936 77.304 166.252
-6.69043 77.8109 166.973
-6.86696 78.1483 167.334
-6.86667 78.3129 167.331
-6.16374 77.7867 165.877
-6.86608 78.6422 167.323
-6.86579 78.8068 167.32
-6.8655 78.9714 167.316
-6.83293 78.6674 166.469
-6.8154 78.6426 166.051
-6.81511 78.806 166.047
-6.81482 78.9694 166.044
-6.81452 79.1328 166.04
-6.81423 79.2963 166.037
-6.84764 80.3341 166.852
-6.86416 81.0211 167.259
-6.86386 81.1857 167.255
-6.33571 80.812 166.162
-6.82902 82.1804 166.379
-6.61953 81.7716 165.193
-6.47603 83.1226 165.63
-6.47574 83.2855 165.627
-6.47544 83.4484 165.623
-6.47515 83.6113 165.62
-6.47485 83.7742 165.616
-6.47456 83.9371 165.613
-6.47426 84.1 165.609
-6.45742 85.5978 165.15
-11.8225 9.76772 186.634
-12.0662 10.0035 187.608
-11.2279 10.0921 185.78
-10.4639 11.058 181.9
-10.2629 11.2119 181.464
-10.4919 11.4485 182.385
-10.2902 11.6018 181.947
-10.2068 11.69 180.472
-10.4911 11.9905 182.371
-10.4624 12.1392 181.871
-10.4621 12.3194 181.866
-10.2611 12.4702 181.43
-9.83566 12.5581 180.084
-9.83541 12.7364 180.079
-9.61207 12.8515 179.171
-9.95185 13.2856 179.036
-9.75516 13.4318 178.613
-9.5594 13.5773 178.193
-9.53378 13.7186 177.715
-9.53355 13.8946 177.711
-9.53331 14.0707 177.706
-9.14594 14.1813 176.88
-9.53284 14.4228 177.697
-9.3634 14.6026 177.752
-9.36317 14.7786 177.747
-9.36293 14.9547 177.742
-9.16904 15.0958 177.326
-9.16881 15.2714 177.321
-9.14435 15.4077 176.848
-9.3372 15.6188 177.253
-8.56999 15.6499 175.622
-8.6681 16.1294 174.173
-8.85694 16.339 174.565
-8.47948 16.4372 173.769
-8.85651 16.6849 174.556
-8.66725 16.8195 174.155
-8.47886 16.9536 173.755
-8.31289 17.1298 173.808
-8.71199 17.4246 175.054
-8.33413 17.518 174.253
-8.54462 17.7756 175.103
-8.35548 17.908 174.699
-8.33351 18.0356 174.239
-8.3333 18.2081 174.235
-8.33309 18.3806 174.23
-8.52124 18.5954 174.623
-8.14517 18.6831 173.826
-8.5208 18.9412 174.615
-8.06024 19.2616 172.013
-8.06004 19.4319 172.009
-8.24517 19.6464 172.392
-8.05964 19.7726 172
-8.05944 19.9429 171.996
-8.24455 20.1586 172.379
-8.26567 20.38 172.82
-8.2869 20.6025 173.264
-8.30822 20.826 173.71
-8.51793 21.0988 174.555
-8.72968 21.3743 175.408
-8.72945 21.5479 175.404
-8.75217 21.7765 175.86
-8.75194 21.9505 175.856
-8.75171 22.1246 175.851
-8.75148 22.2986 175.847
-8.56105 22.4209 175.439
-8.53844 22.5375 174.976
-8.53821 22.7107 174.972
-8.72762 22.9364 175.368
-8.4709 23.1386 173.589
-8.63615 23.3051 173.527
-8.63593 23.4768 173.523
-8.44828 23.5949 173.126
-8.26149 23.7124 172.731
-8.44784 23.9376 173.117
-8.28248 24.1144 173.17
-8.49141 24.4022 174.01
-8.32518 24.5799 174.063
-8.51312 24.8088 174.456
-8.51289 24.9814 174.451
-8.32452 25.0965 174.05
-8.51244 25.3266 174.442
-8.51221 25.4991 174.438
-8.13657 25.5546 173.643
-8.13635 25.7264 173.638
-8.51152 26.0168 174.425
-7.86749 26.1745 171.444
-8.23669 26.4633 172.21
-7.86708 26.5138 171.435
-7.86687 26.6834 171.431
-8.23603 26.9745 172.197
-8.03004 27.0166 171.366
-8.23559 27.3153 172.189
-7.88627 27.4296 171.855
-7.9064 27.6682 172.294
-8.09148 27.9018 172.678
-8.09126 28.0726 172.674
-7.72131 28.1157 171.894
-7.90554 28.3498 172.277
-8.0906 28.5849 172.661
-8.09038 28.7557 172.657
-7.90489 28.8609 172.264
-8.08993 29.0972 172.648
-7.82319 29.5015 170.477
-8.00612 29.7368 170.853
-7.82276 29.8388 170.468
-7.64023 29.9403 170.086
-7.82233 30.176 170.46
-7.84216 30.4195 170.892
-7.49624 30.5264 170.564
-7.69826 30.8402 171.379
-7.88188 31.0797 171.759
-7.67812 31.1022 170.932
-7.31373 31.1311 170.168
-7.67768 31.4403 170.923
-7.49499 31.5383 170.539
-7.49477 31.7069 170.535
-7.3129 31.8041 170.152
-7.67681 32.1162 170.907
-7.43696 32.3919 169.21
-7.0773 32.4148 168.461
-7.4177 32.6469 168.773
-7.41749 32.8138 168.769
-7.41728 32.9807 168.765
-7.43591 33.2285 169.189
-7.45462 33.4775 169.615
-7.29233 33.6524 169.666
-7.11183 33.7446 169.287
-7.11163 33.912 169.283
-6.93194 34.0034 168.906
-7.29149 34.3232 169.65
-7.29128 34.4909 169.646
-7.45312 34.6513 169.586
-7.09259 34.664 168.835
-7.09238 34.8309 168.831
-7.03847 35.3203 167.535
-6.87807 35.4934 167.586
-6.6926 75.2706 167.041
-6.69231 75.435 167.038
-6.64383 74.9693 165.781
-7.17221 75.6313 166.861
-6.65977 75.6395 166.183
-6.65949 75.8031 166.179
-6.65921 75.9667 166.175
-6.65893 76.1302 166.172
-7.18836 76.9663 167.253
-7.20635 77.3172 167.67
-7.20605 77.4822 167.666
-6.51466 77.4749 166.613
-6.67235 78.2798 166.542
-6.81626 78.1523 166.062
-6.7988 78.1288 165.646
-6.79794 78.6179 165.635
-6.62278 78.6082 165.274
-6.62249 78.7709 165.271
-6.6389 79.1219 165.677
-6.81394 79.4597 166.033
-7.00745 79.9906 166.806
-6.12732 83.4075 164.903
-6.45742 85.5978 165.15
-6.45713 85.7602 165.147
-11.4042 10.0892 185.717
-11.1343 10.7418 184.23
-11.4831 10.8243 184.098
-10.8687 10.929 182.774
-10.8684 11.1101 182.769
-10.6365 11.2351 181.834
-10.6943 11.4755 182.821
-10.6649 11.6259 182.319
-10.8378 11.8033 182.252
-10.2341 11.8998 180.955
-10.2339 12.0791 180.95
-10.2336 12.2584 180.945
-10.4335 12.4668 181.369
-10.4051 12.6135 180.875
-10.3768 12.7594 180.382
-10.3765 12.9381 180.378
-9.97854 13.32 179.516
-9.78126 13.4665 179.091
-9.50876 13.5078 177.249
-9.50852 13.6835 177.244
-9.8979 13.9231 178.064
-9.50806 14.0347 177.235
-9.89741 14.276 178.055
-9.53284 14.4228 177.697
-9.55798 14.6364 178.165
-9.33837 14.7408 177.276
-9.53213 14.9509 177.683
-9.14481 15.0573 176.857
-9.33767 15.2676 177.262
-9.31276 15.4038 176.789
-9.12002 15.5432 176.377
-9.11979 15.7179 176.373
-9.02345 16.1621 174.511
-8.83386 16.2979 174.11
-8.83364 16.4704 174.106
-8.64493 16.6053 173.707
-8.62229 16.7354 173.252
-8.81002 16.9453 173.64
-8.66682 17.1645 174.146
-8.87882 17.4204 174.996
-8.71177 17.598 175.049
-8.87837 17.767 174.987
-8.68859 17.8995 174.583
-8.87792 18.1136 174.978
-8.49947 18.2037 174.177
-8.49926 18.3762 174.173
-8.68771 18.591 174.566
-8.68749 18.7639 174.561
-8.38853 19.0822 171.903
-8.40999 19.3004 172.343
-8.22414 19.4273 171.952
-8.57385 19.6372 172.277
-8.3877 19.7633 171.886
-8.57342 19.9785 172.268
-8.22332 20.1085 171.935
-8.43049 20.3752 172.763
-8.82802 20.6915 173.994
-8.68456 20.9212 174.502
-8.49575 21.0459 174.1
-8.87356 21.3154 174.891
-8.87333 21.4885 174.887
-8.68367 21.6121 174.484
-8.70616 21.8398 174.936
-8.89591 22.0635 175.332
-8.91907 22.2934 175.789
-8.72831 22.4158 175.381
-8.89521 22.5841 175.319
-8.89498 22.7576 175.314
-8.99057 23.0085 173.872
-8.61399 23.0755 173.082
-8.42687 23.1942 172.687
-8.80128 23.4715 173.465
-8.61332 23.5895 173.069
-8.80082 23.8149 173.456
-8.98916 24.0413 173.845
-8.44762 24.109 173.113
-8.65729 24.3967 173.953
-8.67966 24.6306 174.402
-8.49096 24.7466 174.002
-8.6792 24.9758 174.393
-8.49051 25.0909 173.993
-8.67874 25.3209 174.385
-8.6785 25.4934 174.38
-8.48982 25.6073 173.98
